VERSION 0.7
FIELDS x y z
SIZE 4 4 4
TYPE F F F
COUNT 1 1 1
WIDTH 912
HEIGHT 1
VIEWPOINT 0.0 0.0 0.0 1.0 0.0 0.0 0.0
POINTS 912
DATA ascii
-1.4008930969e+02 -5.3701786041e+01 -6.0587551117e+01
-1.3705491638e+02 6.8421867371e+01 -4.0929000854e+01
2.0200610352e+02 1.8867791748e+02 7.3142395020e+01
-3.9981304169e+01 2.0869262695e+01 6.7920308113e+00
-2.1326471329e+01 7.9347396851e+01 2.3654127121e+01
-3.8275966644e+01 2.0502227783e+01 5.9140996933e+00
-1.4863446045e+02 6.6386680603e+00 -2.2240983963e+01
-3.7438636780e+01 1.9464633942e+01 5.8020977974e+00
-2.9401989746e+02 6.9296127319e+01 -7.2944664001e+01
6.7215255737e+01 1.4571464539e+02 8.2886032104e+01
-9.9965278625e+01 2.0912366867e+01 -1.5212175369e+01
-1.6832353210e+02 1.1050426483e+02 -9.7073005676e+01
2.7136581421e+02 1.1480136108e+02 6.7498962402e+01
-9.3147415161e+01 2.4660619736e+01 -1.6945642471e+01
-5.0817126465e+02 -1.4843316650e+02 -7.6635795593e+01
-1.9119372559e+02 7.9136749268e+01 -9.4175399780e+01
-8.0936035156e+01 4.2663661957e+01 -2.2714591980e+01
-8.6123756409e+01 9.2010574341e+01 -6.3868511200e+01
4.4613415527e+02 3.7881555176e+02 2.9383129883e+02
-3.8654975891e+01 1.8683490753e+01 5.7525472641e+00
-3.6033195496e+01 1.7843238831e+01 5.3435378075e+00
-9.3757225037e+01 3.8326057434e+01 -1.9715150833e+01
-9.1369132996e+01 3.7509967804e+01 -2.0870109558e+01
-1.1457910919e+02 1.5962208748e+01 -2.0483856201e+01
-6.4683319092e+01 5.9754680634e+01 -5.1967937469e+01
-1.0519131470e+02 1.6591444016e+01 -2.0608335495e+01
7.9099288940e+01 -2.4828776550e+02 7.6878273010e+01
8.6907623291e+01 -1.4271794128e+02 4.0647750854e+01
3.6608578491e+02 -1.8928607178e+02 7.6738182068e+01
1.1941222382e+02 -2.0873744202e+02 6.3041843414e+01
3.8474969482e+02 -1.4437623596e+02 6.0156143188e+01
1.9960926819e+02 -5.5876788330e+02 1.8220739746e+02
3.6165142822e+02 -1.4661381531e+02 5.7204288483e+01
-1.5843602295e+03 -5.1374468994e+02 -3.8744866943e+02
-8.2925830078e+02 -4.0704830933e+02 -1.8754389954e+02
2.3046249390e+02 -3.5688973999e+02 1.0778614044e+02
2.0724624634e+02 -3.7773895264e+02 1.0690779114e+02
-8.0014117432e+02 -4.9052426147e+02 -2.1089048767e+02
-7.9290045166e+02 -4.0513882446e+02 -1.7932009888e+02
-3.2944021606e+02 -1.8021687317e+02 -7.6027534485e+01
-7.5389697266e+02 -3.9373785400e+02 -1.6714955139e+02
3.0550692749e+02 -3.6725238037e+02 1.4288023376e+02
1.6777656555e+02 -1.5364447021e+02 4.3393638611e+01
-8.6427026367e+02 -6.8518469238e+02 -3.0030883789e+02
8.3706459045e+01 -1.4636564636e+02 4.0407917023e+01
1.2172837067e+02 -2.0590830994e+02 5.9396957397e+01
3.5495205688e+02 -3.4202960205e+02 1.5040530396e+02
2.1805064392e+02 -4.0131277466e+02 1.2202009583e+02
4.1501458740e+02 -1.5882905579e+02 7.2438758850e+01
1.4050585938e+03 -1.1610799408e+02 3.0147076416e+02
1.4483045959e+02 -1.8469123840e+02 6.3768535614e+01
1.2426377106e+02 -2.0382766724e+02 6.1974979401e+01
4.2098153687e+02 -1.6835072327e+02 7.8370597839e+01
-8.7987200928e+02 -4.7371630859e+02 -2.2596974182e+02
4.4240921021e+02 -1.6471530151e+02 8.0860466003e+01
2.7903744507e+02 -5.6377783203e+02 2.3710374451e+02
-8.6313494873e+02 -4.1906051636e+02 -1.9919702148e+02
-8.8723651123e+02 -4.9778445435e+02 -2.4258366394e+02
-2.8698748779e+02 -2.0332815552e+02 -9.1496307373e+01
5.9484375000e+02 -1.7977224731e+02 1.2574980927e+02
4.3729000854e+02 -1.9024401855e+02 9.3393653870e+01
8.6773147583e+01 -2.4061027527e+02 7.4672363281e+01
3.1056323242e+02 -1.0663378906e+03 7.2339685059e+02
6.9387884521e+02 -1.4286375427e+02 1.1979373932e+02
2.0804559326e+02 -1.3908029175e+02 6.4522605896e+01
3.3206137085e+02 -1.4542733765e+02 5.1800731659e+01
2.0425889587e+02 -1.4164193726e+02 6.2489845276e+01
5.1514227295e+02 -1.6821107483e+02 9.9163314819e+01
2.2667904663e+02 -2.3836349487e+02 6.3345096588e+01
-1.1764561768e+03 -3.2410675049e+02 -2.0541436768e+02
4.5124627686e+02 -3.5929809570e+02 2.0466577148e+02
-2.7955880737e+02 -2.1390776062e+02 -8.9127006531e+01
7.2150726318e+02 -1.4010040283e+02 1.2361920929e+02
2.6551397705e+02 -2.7497467041e+02 8.7140594482e+01
3.6674954224e+02 -1.8519206238e+02 7.5078437805e+01
4.3244895935e+01 -1.4491258240e+02 5.3597927094e+01
1.0686389923e+02 -9.3175415039e+01 2.5057292938e+01
5.1549453735e+01 -1.2293474579e+02 -5.1862628937e+01
3.7917294312e+02 -2.5184399414e+02 1.1074708557e+02
4.2042388916e+02 -1.4331748962e+02 6.5808403015e+01
3.6073489380e+02 -3.2509063721e+02 1.4342376709e+02
6.9817742920e+02 -1.6350007629e+02 1.3882427979e+02
-8.2399847412e+02 -4.4149545288e+02 -1.9933346558e+02
4.0234103394e+02 -2.8957434082e+02 1.3912104797e+02
-8.7035803223e+02 -3.7452557373e+02 -1.8451959229e+02
4.1736395264e+02 -1.8648693848e+02 8.6813743591e+01
-7.6664617920e+02 -3.7857476807e+02 -1.6432972717e+02
6.1966473389e+02 -3.8264593506e+02 3.2085675049e+02
5.1659289551e+02 -1.7592309570e+02 1.0371148682e+02
4.7043438721e+02 -1.5231771851e+02 7.9701133728e+01
-8.1324822998e+02 -5.5302990723e+02 -2.4004908752e+02
3.3330886841e+02 -1.4774946594e+02 5.2907154083e+01
5.6981475830e+02 -4.3797412109e+02 3.3405770874e+02
-1.2689241791e+02 -9.2283561707e+01 -3.7867362976e+01
4.2442932129e+02 -1.5052413940e+02 7.0071327209e+01
2.6325851440e+02 -3.7732546997e+02 1.2798928070e+02
3.7122692871e+02 -2.7289608765e+02 1.1922783661e+02
3.6671658325e+02 -7.7070205688e+01 5.9454120636e+01
-8.9542169189e+02 -3.6720370483e+02 -1.8705311584e+02
3.8213150024e+02 -1.4698736572e+02 6.0868503571e+01
2.1781988525e+02 -4.1989123535e+02 1.2853872681e+02
1.1343650055e+02 -2.1403955078e+02 6.7829757690e+01
1.7209094238e+02 -1.6286645508e+02 6.3916225433e+01
-8.4463122559e+02 -4.7159774780e+02 -2.1508268738e+02
1.4454365234e+03 -7.8267219543e+01 2.2012641907e+02
2.8224044800e+02 -4.9806781006e+02 2.0071482849e+02
-7.8954040527e+01 -2.6733566284e+02 -1.4042858887e+02
2.9771145630e+02 -2.7849392700e+02 9.8421546936e+01
7.5929916382e+01 -1.3819429016e+02 4.6640804291e+01
9.3207389832e+01 -2.2447584534e+02 8.1244873047e+01
9.1927496338e+02 -1.2854277039e+02 1.5920782471e+02
2.0413667297e+02 -3.7061273193e+02 1.0294850922e+02
-8.6955487061e+02 -3.5482278442e+02 -1.7674501038e+02
7.3308209229e+02 -1.2837532043e+02 1.1553735352e+02
2.3254704285e+02 -5.1335260010e+02 1.7954106140e+02
9.4426559448e+01 -2.2131568909e+02 8.2307769775e+01
8.6719329834e+02 -1.8559358215e+02 2.1600083923e+02
5.0477752686e+02 -1.5020329285e+02 8.5199394226e+01
-3.8755169678e+02 -1.4558763123e+02 -9.3589447021e+01
5.3888409424e+02 -3.7528723145e+02 2.6387719727e+02
5.0044485474e+02 -2.8674633789e+02 1.7437548828e+02
3.9650308228e+02 -2.3760740662e+02 1.0800511169e+02
2.5247277832e+02 -4.0236590576e+02 1.3648165894e+02
1.2175341034e+02 -1.9245312500e+02 8.1446121216e+01
2.6808840942e+02 -3.3429577637e+02 1.1254429626e+02
7.5920019531e+02 -1.3422456360e+02 1.2671643066e+02
5.5558361816e+02 -1.3556463623e+02 8.5919906616e+01
3.0979107666e+02 -5.4212371826e+02 2.4477270508e+02
3.2086395264e+02 -3.2614447021e+02 1.3103805542e+02
5.3810217285e+02 -1.7131282043e+02 1.0560519409e+02
1.4827618408e+03 -7.2350784302e+01 2.1704576111e+02
-8.6835186768e+02 -4.4985562134e+02 -2.1234007263e+02
-2.3911122131e+02 7.1466407776e+01 1.2693854523e+02
4.1574847412e+02 -1.7531692505e+02 8.0777908325e+01
8.3370857239e+01 -2.2270065308e+02 8.8686347961e+01
-9.0722235107e+02 -4.9112875366e+02 -2.3935017395e+02
-1.2923148155e+01 -1.5376551628e+01 -1.4600981712e+01
1.8743353271e+02 -1.2662906647e+02 8.8575920105e+01
7.2522235107e+02 -1.4922802734e+02 1.3254000854e+02
4.3004415894e+02 -1.3657318115e+02 6.4240280151e+01
4.6061828613e+02 -1.6313096619e+02 8.3736694336e+01
4.3889181519e+02 -1.6043380737e+02 7.7908515930e+01
2.4097061157e+02 -3.3725698853e+02 1.0324314880e+02
3.6856457520e+02 -3.1396774292e+02 1.4035130310e+02
4.5193420410e+02 -1.8200863647e+02 9.2373817444e+01
7.2694812012e+02 -3.5068234253e+02 3.5596237183e+02
9.8498130798e+01 -1.2135202026e+02 4.5131256104e+01
-3.6141918945e+02 -1.6297914124e+02 -7.7470748901e+01
5.5546960449e+02 -1.3725643921e+02 8.6992370605e+01
2.1830192566e+02 -6.2005670166e+02 2.2685057068e+02
2.8299114990e+02 -4.7675427246e+02 1.8930044556e+02
5.5571148682e+02 -1.3331837463e+02 8.4495948792e+01
2.6761959839e+02 -4.9482232666e+02 1.9031712341e+02
5.1387121582e+02 -1.7948098755e+02 1.0534899902e+02
3.1694055176e+02 -9.0615081787e+01 6.5770278931e+01
2.9595773315e+02 -4.5459884644e+02 1.8429785156e+02
1.0757718506e+03 -1.1388682556e+02 1.8088327026e+02
6.5798870850e+02 -1.7414747620e+02 1.3748835754e+02
3.6247256470e+02 -1.9723463440e+02 7.9483177185e+01
4.2180966187e+02 -2.3262469482e+02 1.1296679688e+02
9.2672485352e+01 -2.3851887512e+02 6.3889198303e+01
4.6647778320e+02 -2.6327890015e+02 1.4566882324e+02
4.8250973511e+02 -1.4623820496e+02 7.8653366089e+01
-8.2992346191e+02 -5.2566888428e+02 -2.3040289307e+02
7.5305763245e+01 -2.5697872925e+02 7.3190299988e+01
4.4413854980e+02 -1.9595425415e+02 9.8342620850e+01
5.5273803711e+02 -1.4386126709e+02 9.0753120422e+01
6.7996350098e+02 -1.5333023071e+02 1.2545405579e+02
4.3600143433e+02 -1.6855180359e+02 8.1557678223e+01
-6.7092018127e+01 -2.5406427002e+02 -1.4172938538e+02
1.2286413574e+02 -1.9779495239e+02 7.6511352539e+01
2.9202984619e+02 -4.9995986938e+02 2.0767663574e+02
3.7044778442e+02 -3.8575021362e+02 1.8272534180e+02
4.1211743164e+02 -2.8446328735e+02 1.3964739990e+02
1.2416884613e+02 -2.0375260925e+02 6.0587574005e+01
-2.2306916809e+02 8.5412559509e+01 1.1888593292e+02
2.6544094849e+02 -2.8326272583e+02 9.0403747559e+01
3.9114584351e+02 -2.5296937561e+02 1.1498754120e+02
2.1137280273e+02 -7.8828503418e+02 3.2444714355e+02
2.6947476196e+02 -4.7401214600e+02 1.8025900269e+02
2.3175347900e+02 -1.0878274536e+02 3.7178607941e+01
2.2317730713e+02 -6.8589984131e+02 2.6917639160e+02
4.0402508545e+02 -2.3323780823e+02 1.0820453644e+02
4.3582189941e+02 -1.9403881836e+02 9.5256591797e+01
5.9058538818e+02 -3.8294329834e+02 3.0232775879e+02
6.6404180908e+02 -2.6372012329e+02 2.1977478027e+02
4.2915274048e+02 -1.3974916077e+02 6.5733985901e+01
6.8438049316e+01 -2.3352375793e+02 9.2450942993e+01
5.4709655762e+02 -1.5467123413e+02 9.6670143127e+01
3.0812600708e+02 -4.5623367310e+02 1.9187507629e+02
4.3805203247e+02 -1.4125704956e+02 6.7862960815e+01
3.9689559937e+02 -1.9629553223e+02 8.7171653748e+01
3.0056152344e+02 -4.3749417114e+02 1.7736355591e+02
3.3339794922e+02 -3.7506283569e+02 1.5922605896e+02
9.6551391602e+01 -2.1458917236e+02 8.4706558228e+01
3.4986462402e+02 -4.5070980835e+02 2.1200776672e+02
4.1881039429e+02 -2.4399697876e+02 1.1848937988e+02
-7.7374499512e+02 9.0784649658e+02 -4.2853207397e+02
1.0106410522e+03 -1.2991322327e+02 1.8658413696e+02
6.4151574707e+02 -1.4603106689e+02 1.1075473022e+02
3.0425329590e+02 -6.0686022949e+02 2.8348251343e+02
1.9748266602e+02 -6.7981463623e+02 2.4473371887e+02
1.4438719177e+02 -1.2552209473e+02 -1.4864187622e+02
-9.1152075195e+02 -5.8492889404e+02 -2.7323211670e+02
-5.9906616211e+01 -3.1753091431e+02 -1.4730752563e+02
3.4157925415e+02 -5.6764172363e+02 2.8487731934e+02
5.1843347168e+02 -5.0778363037e+02 3.7459765625e+02
8.0929077148e+01 -1.9169560242e+02 1.0030617523e+02
4.9021136475e+02 -2.9505966187e+02 1.7625508118e+02
1.6001203060e+00 -5.6468975544e-01 2.5667160749e-01
-6.5591864014e+02 -3.2082177734e+02 -1.2445183563e+02
4.0939724731e+02 -2.9437667847e+02 1.4451397705e+02
5.5512945557e+02 -1.4141377258e+02 8.9627738953e+01
5.7166326904e+02 -3.6659545898e+02 2.7495040894e+02
4.1624987793e+02 -1.7280529785e+02 7.9620590210e+01
5.3892077637e+02 -1.6828540039e+02 1.0373860168e+02
4.7856530762e+02 -1.3752983093e+02 7.3095199585e+01
9.0101127625e+01 -2.1666481018e+02 8.7574386597e+01
-1.4533692932e+02 -1.6098028564e+02 -1.3091654968e+02
5.2102172852e+02 -2.2874003601e+02 1.4036576843e+02
-2.7004989624e+02 -5.4544818115e+02 1.8501417542e+02
9.7609375000e+01 -2.2664549255e+02 7.5362686157e+01
-6.2419517517e+01 -3.0076541138e+02 -1.4553100586e+02
6.4739556885e+02 -1.8673493958e+02 1.4572143555e+02
1.8818598938e+02 3.1303793335e+02 1.4572605896e+02
-3.3412619019e+02 -6.6042388916e+02 2.0638615417e+02
2.5206684875e+02 -3.3467929077e+02 1.0681327820e+02
3.1732626343e+02 -5.5481060791e+02 2.5827508545e+02
7.6969245911e+01 -1.3483248901e+02 4.7279163361e+01
-3.4115989685e+01 -1.5464556885e+02 -6.9357238770e+01
7.9833795166e+02 -1.9898736572e+02 2.0507279968e+02
1.1503492432e+03 -3.8843142700e+02 2.0091331482e+02
3.0668188477e+02 -5.0754718018e+02 2.1752360535e+02
2.7157711792e+02 -1.0078781128e+02 4.4033245087e+01
-7.4325897217e+01 2.6192852783e+02 8.2425750732e+01
4.6253875732e+02 -2.3448092651e+02 1.2611721039e+02
5.0046371460e+02 -4.2518676758e+02 2.8416235352e+02
3.5588800049e+02 -8.8599218750e+02 5.8632019043e+02
3.2875030518e+02 -6.3862847900e+02 3.2657266235e+02
-1.0481838379e+03 -7.5640649414e+02 -3.7680218506e+02
4.7538806152e+02 -3.2635513306e+02 1.9239529419e+02
3.3026336670e+02 1.5550681114e+01 6.3610095978e+01
3.1800588989e+02 -8.7124023438e+01 4.6858646393e+01
6.9110119629e+02 -1.2854335022e+02 1.0711805725e+02
4.0800942993e+02 -1.3452232361e+02 5.9541477203e+01
4.3246844482e+02 -1.7157934570e+02 8.2431953430e+01
7.4766546631e+02 -1.1901183319e+02 1.1004296875e+02
-2.1686871338e+02 -6.5254173279e+01 -3.4410732269e+01
2.6369033813e+02 -3.6266439819e+02 1.2332498932e+02
8.0840008545e+02 -1.1446567535e+02 1.1795807648e+02
3.3386560059e+02 -5.9522332764e+02 2.9871932983e+02
1.3386451416e+03 -1.0878095245e+02 2.5765771484e+02
5.5508374023e+02 -1.2947206116e+02 8.2057022095e+01
5.3389154053e+02 -1.8236228943e+02 1.1190604401e+02
5.4670178223e+02 -1.8671461487e+02 1.1834228516e+02
-2.6950570679e+02 -5.6214196777e+02 1.8464547729e+02
2.9346945190e+02 -1.4248222351e+02 -1.5765829468e+02
3.1281323242e+02 -4.3891876221e+02 1.8459313965e+02
2.0763407898e+02 -1.3670750427e+02 7.0711730957e+01
-2.4975953674e+02 -9.4997131348e+01 -4.9324226379e+01
4.6961819458e+02 -1.3638275146e+02 7.0813072205e+01
4.9158816528e+02 -3.7083920288e+02 2.3394337463e+02
2.9524530029e+02 -7.1877185059e+02 3.4532327271e+02
5.8131726074e+02 -3.3685406494e+02 2.5264448547e+02
1.2061480713e+02 -2.0250392151e+02 7.4087188721e+01
-8.3734519958e+01 2.5139529419e+02 8.6137176514e+01
4.2334249878e+02 -2.2674572754e+02 1.1011186981e+02
4.1650387573e+02 -1.9048632812e+02 8.8675636292e+01
3.0560931396e+02 -9.4463043213e+01 5.3582195282e+01
1.6071677246e+03 -5.2307452393e+02 2.9795632935e+02
8.4000366211e+01 -2.3797943115e+02 7.9918678284e+01
4.5492527008e+01 -1.6883439636e+02 4.8392120361e+01
9.8561523438e+02 -3.0276528931e+02 4.8087680054e+02
5.1742346191e+02 -1.7212860107e+02 1.0147442627e+02
5.1926873779e+02 -1.9421809387e+02 1.1601744080e+02
-2.9931997681e+02 -1.9705131531e+02 -8.1099586487e+01
5.0378085327e+02 -2.5544326782e+02 1.5464143372e+02
1.0141006470e+02 -1.0922835541e+02 4.8347785950e+01
4.8829223633e+01 -1.5336166382e+02 5.0744792938e+01
6.1322818756e+01 -1.5516629028e+02 4.6550045013e+01
5.0261431885e+02 -2.7245440674e+02 1.6494145203e+02
4.0815435791e+02 -1.4024378967e+02 6.2482742310e+01
5.1987786865e+02 -2.3286982727e+02 1.4289999390e+02
3.1485061646e+02 -2.8951663208e+02 1.0887220001e+02
1.7824882507e+02 -1.5857546997e+02 6.2596206665e+01
9.6186958313e+01 -2.2939361572e+02 7.4264373779e+01
5.2384179688e+02 -4.2301556396e+02 2.9743600464e+02
6.5082025146e+02 -1.6390620422e+02 1.2717115784e+02
4.0779904175e+02 -1.7010423279e+02 7.6547325134e+01
4.0014923096e+02 -7.5931091309e+02 5.0998703003e+02
6.4242346191e+02 -5.8488879395e+02 6.0275341797e+02
-7.8278205872e+01 -8.3730171204e+01 -6.6102188110e+01
2.9367898560e+02 -6.4080883789e+02 2.9830859375e+02
2.7921588135e+02 -6.8903765869e+02 3.1965756226e+02
2.4662753296e+02 -1.1878977203e+02 6.4147491455e+01
6.5080932617e+01 -1.4287434387e+02 4.8584667206e+01
6.6411236572e+02 -2.4001364136e+02 1.9757931519e+02
3.5841549683e+02 -3.0764260864e+02 1.3311598206e+02
4.8690005493e+02 -2.0699916077e+02 1.1595574951e+02
7.1063446045e+02 -1.4341137695e+02 1.2410746002e+02
-1.0026250000e+03 -7.3199560547e+02 -3.5292135620e+02
2.0623829651e+02 -5.3335638428e+02 1.7690985107e+02
5.5249847412e+02 -1.4609635925e+02 9.2163322449e+01
3.6568518066e+02 -4.3674533081e+02 2.1209008789e+02
2.5179078674e+02 -7.3809088135e+02 3.1937115479e+02
2.9466186523e+02 -5.8020135498e+02 2.5850656128e+02
3.6256097412e+02 -5.3911016846e+02 2.7992410278e+02
5.0972790527e+02 -3.3134188843e+02 2.1199893188e+02
7.8358251953e+02 -1.2402959442e+02 1.2221833801e+02
-2.7050854492e+02 -5.0104336548e+02 1.8531787109e+02
5.0898611450e+02 -3.4081649780e+02 2.1909925842e+02
1.8815557861e+02 -1.5218853760e+02 6.4813201904e+01
2.2466365051e+02 -1.2844305420e+02 6.8267990112e+01
3.2464810181e+02 -7.3974655151e+01 8.2533607483e+01
5.5636901855e+02 -1.9199418640e+02 1.2461390686e+02
-5.9126367188e+02 -2.7055682373e+02 -9.7396499634e+01
-1.2536322021e+03 1.4047348022e+01 -2.1077935791e+02
4.7008239746e+02 -1.3211721802e+02 6.8597915649e+01
4.8439492798e+02 -3.1499169922e+02 1.8816136169e+02
-5.7065612793e+02 -2.7476394653e+02 -9.4865867615e+01
5.0511236572e+02 -1.4809284973e+02 8.4002159119e+01
3.8371606445e+02 -7.1424362183e+01 6.6499366760e+01
2.9391809082e+02 -8.9557525635e+01 7.9023529053e+01
2.7508590698e+02 -7.2299157715e+02 3.1897253418e+02
9.0043194580e+02 -1.5437762451e+02 1.8444351196e+02
2.5529145813e+02 -7.0434216309e+02 -2.6266665649e+02
6.8392562866e+01 -1.1034855652e+02 3.0971351624e+01
4.6362127686e+02 -3.6652111816e+02 2.1607383728e+02
4.3556481934e+02 -4.8062170410e+02 2.8709921265e+02
1.0227359009e+02 -2.1700436401e+02 7.8964157104e+01
1.5890692139e+03 -6.6045455933e+01 2.3462950134e+02
2.5550447083e+02 -4.8628311157e+02 1.7887876892e+02
5.0361172485e+02 -1.3079180908e+02 7.3568878174e+01
5.0511874390e+02 -1.3395014954e+02 7.5661010742e+01
7.9571449280e+01 -2.3949459839e+02 8.2690155029e+01
2.1275366211e+02 -4.1053784180e+02 1.2234628296e+02
1.2462117920e+03 -1.6649620056e+02 -1.9541148376e+02
5.3489129639e+02 -3.8795751953e+02 2.7278594971e+02
8.9257812500e+02 5.5194390869e+02 2.6994305420e+02
4.6422830200e+02 -1.9620004272e+02 1.0346631622e+02
5.2597033691e+02 -1.9096505737e+02 1.1560882568e+02
1.9621868896e+02 -3.8059478760e+02 1.0358979797e+02
5.6231341553e+02 -3.7944952393e+02 2.8146350098e+02
4.5173339844e+02 -1.3426338196e+02 6.6636840820e+01
6.8952520752e+02 -1.5030860901e+02 1.2525904083e+02
3.6371771240e+02 -2.6210818481e+02 1.1127364349e+02
4.6172503662e+02 -1.9984809875e+02 1.0498006439e+02
2.4165238953e+02 -8.8446203613e+02 4.2950573730e+02
9.2582305908e+02 -1.3472568359e+03 4.0239416504e+02
2.8996530151e+02 -5.2335150146e+02 2.2010209656e+02
-6.4228198242e+02 -3.2387646484e+02 -1.2350580597e+02
4.4504788208e+02 -5.8530291748e+02 3.8544573975e+02
6.1854602051e+02 -1.5638395691e+02 1.1350520325e+02
2.7437750244e+02 -5.1990057373e+02 2.0826965332e+02
2.9643164062e+02 -5.4419042969e+02 2.3698716736e+02
4.2189389038e+02 -1.7806027222e+02 8.3466140747e+01
-7.7412063599e+01 -1.1331195831e+02 -6.5371856689e+01
-7.2380377197e+02 -2.5232446289e+02 -1.0952770996e+02
4.6289822388e+02 -1.5052787781e+02 7.7267028809e+01
4.5430908203e+02 -2.1537472534e+02 1.1183116913e+02
-8.1618568420e+01 -2.4236181641e+02 -6.6637603760e+01
3.2764251709e+02 -3.2140744019e+02 1.2875491333e+02
-1.8633154297e+02 -3.6712200928e+02 -1.1341243744e+02
4.0471203613e+02 -1.5491407776e+02 6.8568412781e+01
6.5668823242e+02 -1.4063356018e+02 1.0974339294e+02
7.5902844238e+02 -2.5785433960e+02 2.5978567505e+02
-7.8854022217e+02 -8.2320294189e+02 -2.9400152588e+02
3.7976681519e+02 -2.4566795349e+02 1.0733234406e+02
4.7338812256e+02 -2.0576667786e+02 1.1156195068e+02
-2.5523788452e+02 -2.3909843445e+02 -9.2486923218e+01
-6.7653002930e+02 -2.7144372559e+02 -1.1004290009e+02
4.6081439209e+02 -2.4088085938e+02 1.2955944824e+02
4.3740396118e+02 -4.5573144531e+02 2.6866482544e+02
1.0578815460e+02 -2.1116362000e+02 8.0301986694e+01
5.9518054199e+02 -4.0281726074e+02 3.2563491821e+02
4.5493554688e+02 -3.7736880493e+02 2.1959196472e+02
1.5497312927e+02 -1.7487829590e+02 6.8233413696e+01
3.1840585327e+02 -3.7116363525e+02 1.5047291565e+02
3.8404953003e+02 -7.2676734924e+01 6.0563873291e+01
2.9679495239e+02 -2.4456544495e+02 8.3798599243e+01
9.9410510254e+02 -2.9673007202e+02 1.5347935486e+02
8.7844165039e+02 -2.7813937378e+02 -2.3323799133e+02
4.0633700562e+02 -3.4704504395e+02 1.7547406006e+02
-2.8241946411e+02 -1.0914218903e+02 -1.2174810791e+02
3.4003973389e+02 -3.4876525879e+02 1.4947032166e+02
3.6225543213e+02 -6.9506677246e+02 4.0445855713e+02
6.8311425781e+02 -3.6901211548e+02 3.4837380981e+02
4.2093933105e+02 -3.1083535767e+02 1.5895181274e+02
3.0953628540e+02 -7.0484436035e+01 8.7293548584e+01
5.8850939941e+02 -2.7036450195e+02 1.9312454224e+02
6.4573284912e+02 -1.5542633057e+02 1.1922075653e+02
3.8401113892e+02 -3.8584219360e+02 1.8941511536e+02
-8.4439996338e+02 -2.7273342896e+02 -1.3437252808e+02
5.0088076782e+02 -4.8866827393e+02 3.4181753540e+02
2.7752798462e+02 -1.0249051666e+02 7.0956474304e+01
6.4520697021e+02 -1.2734122467e+02 9.7122634888e+01
3.7882797241e+01 -1.2158389282e+02 3.5298641205e+01
4.7539752197e+02 -4.3131915283e+02 2.7337387085e+02
1.2346694946e+02 -2.0137251282e+02 7.1919143677e+01
6.8993713379e+02 -3.7917788696e+02 3.6564169312e+02
3.4255603027e+02 -7.4588812256e+02 4.2849038696e+02
2.2766590881e+02 -5.4397033691e+02 1.9224143982e+02
5.9520306396e+02 -2.9840478516e+02 2.2135108948e+02
4.5338522339e+02 -1.7803004456e+02 9.0354232788e+01
3.4040237427e+02 -5.3730895996e+02 2.6281552124e+02
6.6653442383e+02 -5.2328314209e+02 5.3926690674e+02
-2.9642260742e+02 -8.7672515869e+01 -4.4831863403e+01
3.6239996338e+02 -7.7992652893e+01 6.1935443878e+01
4.3919369507e+02 -4.2504379272e+02 2.4627221680e+02
2.1988398743e+02 -1.3165034485e+02 6.6815971375e+01
8.2330364990e+02 -2.0091493225e+02 2.1874569702e+02
5.3607482910e+02 -3.3170782471e+02 2.2503120422e+02
3.2045825195e+02 -5.8518365479e+02 2.8113925171e+02
2.7287713623e+02 -3.6681295776e+02 1.2895854187e+02
5.0932904053e+02 -2.5253816223e+02 1.5220301819e+02
1.4263560486e+02 -1.7614103699e+02 7.9000701904e+01
7.2880621338e+02 -1.2577671814e+02 1.1244786072e+02
-4.0727246094e+02 1.4269615173e+02 -1.9657626343e+02
3.8347419739e+01 -3.7628356934e+01 -4.6179603577e+01
3.8417456055e+02 -6.0787817383e+02 3.5070065308e+02
3.0313391113e+02 -5.2372595215e+02 2.2881340027e+02
4.9820217896e+02 -4.3963067627e+02 2.9527722168e+02
-1.3870054626e+02 -2.6998526001e+02 8.2461761475e+01
8.1423120117e+02 -2.1327459717e+02 2.3034434509e+02
6.5856939697e+02 -2.3108786011e+02 1.8907653809e+02
7.3670141602e+02 -1.2995941162e+02 1.1774836731e+02
4.8107424927e+02 -3.8563452148e+02 2.3991352844e+02
1.3400490723e+03 -8.1327667236e+01 1.9605058289e+02
3.0696844482e+02 -7.8746070862e+01 8.4373657227e+01
3.5172427368e+02 -4.8690386963e+02 2.3644755554e+02
5.1428039551e+02 -4.5337136841e+02 3.1877981567e+02
5.8280133057e+02 -1.3268212891e+02 8.9113288879e+01
3.7773239136e+02 -7.1984350586e+02 4.4374093628e+02
1.2641133881e+02 -2.0127484131e+02 5.9328083038e+01
4.6068627930e+02 -1.8683956909e+02 9.7014099121e+01
-6.0972424316e+02 -6.6978858948e+01 -1.3101991272e+02
3.6937039185e+02 -6.5312658691e+02 3.7520199585e+02
-9.7075079346e+02 -3.3562136841e+02 -1.8342753601e+02
4.3576434326e+02 -4.9877719116e+02 3.0195251465e+02
8.4485644531e+02 -2.1848883057e+02 2.4997477722e+02
-1.6595421143e+03 3.5232830048e+01 -2.5034031677e+02
-3.7841107178e+02 1.7821461487e+02 5.5429756165e+01
5.0667037964e+02 -3.8369137573e+02 2.5267774963e+02
2.0883801270e+02 -4.9193063354e+02 1.5589404297e+02
1.5786190186e+03 -6.8529037476e+01 2.3721549988e+02
8.1341247559e+02 -1.9024354553e+02 2.0223442078e+02
7.5021781921e+01 -1.8266011047e+02 1.0448812103e+02
8.1731481934e+02 -3.3742675781e+02 4.0312927246e+02
4.1443209839e+02 -4.9192807007e+02 2.8140148926e+02
4.9479821777e+02 -1.7615792847e+02 9.8678848267e+01
6.9003533936e+02 -1.3305426025e+02 1.1087670898e+02
3.1766012573e+02 -6.8830456543e+02 3.5466195679e+02
-5.5175164795e+02 8.4319128418e+02 4.9925115967e+02
4.8943716431e+02 -1.9347128296e+02 1.0792998505e+02
4.1564505005e+02 -7.0851806641e+02 4.7587252808e+02
1.0698823547e+02 2.3395178223e+02 1.3326564026e+02
-3.3631826782e+02 -1.7551530457e+02 -7.3129943848e+01
7.8203356934e+02 -2.2954161072e+02 2.3655778503e+02
6.6698077393e+02 -4.5833786011e+02 4.4837951660e+02
4.9585971069e+02 -3.2264746094e+02 1.9889501953e+02
4.1176635742e+02 -2.4960264587e+02 1.1949224091e+02
4.4966308594e+02 -2.9979345703e+02 1.6189192200e+02
6.2249847412e+01 -1.5245579529e+02 4.6989967346e+01
6.4735858154e+02 -4.2277249146e+02 3.7304733276e+02
-2.5820263672e+02 8.1144354248e+02 -2.5101423645e+02
-8.3915960693e+02 4.3281890869e+02 -1.7537591553e+02
-2.7249700928e+02 4.4725433350e+02 -1.2741503143e+02
-3.5247869873e+02 6.5028613281e+02 -1.9754745483e+02
-3.6128790283e+02 6.3170050049e+02 -1.9061439514e+02
-3.3242361450e+02 6.0610290527e+02 -1.7138098145e+02
7.8236346436e+02 3.8366619873e+02 1.7660452271e+02
-2.9334820557e+02 4.5396801758e+02 -1.3715316772e+02
3.5749905396e+02 2.1824311829e+02 9.3892387390e+01
7.8034875488e+02 4.0647155762e+02 1.7269412231e+02
-2.9309222412e+02 8.2124945068e+02 -2.6755825806e+02
8.0985815430e+02 4.1272451782e+02 1.8282180786e+02
7.6628356934e+02 4.1810174561e+02 1.7652627563e+02
-3.3314700317e+02 5.8266766357e+02 -1.6071040344e+02
-3.7682833862e+02 6.1819171143e+02 -1.8780107117e+02
-1.4668703613e+03 -1.3027816772e+02 -2.7930572510e+02
-5.9823455811e+02 5.4777294922e+02 -1.5441221619e+02
-5.7980804443e+02 2.1721080017e+02 -9.0491195679e+01
-8.9121374512e+02 1.0722630615e+03 -4.1622927856e+02
-3.1981503296e+02 5.8623468018e+02 -1.5940979004e+02
-4.1626571655e+02 4.1933444214e+02 -1.3951467896e+02
7.1265386963e+02 5.6232775879e+02 2.4667381287e+02
-1.0441683350e+03 4.1671203613e+02 -1.9390255737e+02
8.0873199463e+02 4.2515979004e+02 1.9020092773e+02
-1.1203676605e+02 6.6187390137e+02 -2.7600973511e+02
-4.8121215820e+02 6.1351385498e+02 -2.1166471863e+02
-3.1538745117e+02 5.7586999512e+02 -1.5379928589e+02
-5.5731951904e+02 2.0713467407e+02 -1.0167383575e+02
8.8555236816e+02 3.7462130737e+02 1.7452111816e+02
9.1114813232e+02 4.1067715454e+02 1.8525408936e+02
-1.0613638916e+03 4.0818591309e+02 -1.8928443909e+02
-5.5957879639e+02 5.4173370361e+02 -1.9031866455e+02
-1.5711562500e+03 4.7398126221e+02 -3.3142102051e+02
8.1109948730e+02 4.3349768066e+02 1.9587643433e+02
-3.7016534424e+02 3.6602857709e-01 5.8719940186e+01
-5.5683453369e+02 2.1270375061e+02 -9.6997833252e+01
-4.5268865967e+02 9.1496166992e+02 -3.8450854492e+02
8.7854931641e+02 4.0727917480e+02 1.9442845154e+02
-3.7115350342e+02 7.2886920166e+02 -2.4335177612e+02
7.8659576416e+02 5.9967828369e+02 2.5046191406e+02
-8.9509271240e+02 7.1232653809e+02 -4.0552996826e+02
1.1660067139e+03 4.4369345093e+02 2.9096029663e+02
-6.0685070801e+02 4.1978479004e+02 -1.8540881348e+02
-2.8056628418e+02 7.7872937012e+02 -2.4145137024e+02
-4.3104327393e+02 4.5291705322e+02 -1.2026141357e+02
-8.3907604980e+02 3.6656689453e+02 -1.3050726318e+02
7.8953564453e+02 4.7949313354e+02 2.1885693359e+02
-1.2543851318e+03 4.0520330811e+02 -2.1194654846e+02
8.6594848633e+02 4.1935272217e+02 1.9948820496e+02
-1.1242982178e+03 3.8228848267e+02 -1.7547251892e+02
-4.5046435547e+02 4.5937924194e+02 -1.2646100616e+02
-1.6445036621e+03 4.8636187744e+02 -3.5866134644e+02
-7.9964080811e+02 3.6409585571e+02 -1.2437428284e+02
-4.8430838013e+02 2.1043211365e+02 -1.0328958130e+02
-1.3474881592e+03 4.4036538696e+02 -2.5950698853e+02
1.2287653809e+03 3.3749523926e+02 2.1404170227e+02
7.6169146729e+02 4.2428332520e+02 1.7913653564e+02
-1.0342012939e+03 5.2204449463e+02 -2.1120074463e+02
8.1943835449e+02 3.8177337646e+02 1.6584861755e+02
8.3992510986e+02 4.7369271851e+02 2.0285177612e+02
-6.3464605713e+02 4.2318954468e+02 -1.9656709290e+02
-1.8219603271e+03 4.7272790527e+02 -3.6876693726e+02
-4.4714050293e+02 6.3856652832e+02 -2.1642749023e+02
-2.9713934326e+02 9.9667919922e+02 -3.6832202148e+02
-1.5512145996e+02 1.0919312744e+03 -3.6184497070e+02
-1.1449172363e+03 8.7779858398e+02 -6.6915332031e+02
-6.9311761475e+02 6.2427606201e+02 -2.7524353027e+02
-3.6266366577e+02 3.1529895020e+02 -8.4907836914e+01
9.3975433350e+02 3.8153967285e+02 1.9020172119e+02
-7.5268322754e+02 5.5282250977e+02 -2.4138206482e+02
-1.3468654785e+03 5.6419805908e+02 -2.8143698120e+02
3.7898699951e+02 2.0410888672e+02 9.9537078857e+01
7.8816564941e+02 4.5474710083e+02 2.0343881226e+02
-1.3362542725e+03 8.2473535156e+02 -6.9119989014e+02
7.3709808350e+02 4.9900527954e+02 2.1678323364e+02
-6.1746813965e+02 5.8402020264e+02 -2.2904110718e+02
-1.3217189941e+03 4.4925250244e+02 -2.6474148560e+02
-7.9135717773e+02 5.2506231689e+02 -2.3075976562e+02
-9.2623577881e+02 3.5647668457e+02 -1.7273498535e+02
8.5501538086e+02 4.2568884277e+02 2.0108711243e+02
-3.4089019775e+02 8.9194543457e+02 -3.2429095459e+02
-1.1103919678e+03 3.9286611938e+02 -1.8281294250e+02
-9.8821002197e+02 3.7918304443e+02 -1.5695587158e+02
-1.3804219971e+03 4.0980026245e+02 -2.3236898804e+02
-5.0739282227e+02 4.2292800903e+02 -1.1812093353e+02
-2.4227684021e+02 9.8359344482e+02 -3.3757159424e+02
-3.6775234985e+02 9.8299298096e+02 -3.9114547729e+02
9.5035217285e+02 4.2667675781e+02 2.0333045959e+02
-8.7759716797e+02 1.2246090698e+02 -1.5169697571e+02
-5.7149523926e+02 5.3423004150e+02 -1.8866687012e+02
1.2769710693e+03 3.2452816772e+02 2.1178160095e+02
-1.2360909271e+02 9.2099871826e+02 -2.6148321533e+02
9.1884454346e+02 3.9370379639e+02 1.9411822510e+02
-3.6138433838e+02 6.8212530518e+02 -2.1597923279e+02
-2.0282200623e+02 1.2790227051e+03 -4.9861389160e+02
-3.6231552124e+02 8.0026776123e+02 -2.7965185547e+02
-1.6983548584e+03 3.5503854370e+02 -2.7460659790e+02
-1.1221090088e+03 7.5766265869e+02 -5.2969854736e+02
-3.3848928833e+02 1.1883975830e+03 -5.1380944824e+02
-1.0431141357e+03 4.1153927612e+02 -1.8953535461e+02
-1.1835285645e+03 4.1798431396e+02 -2.1446995544e+02
-3.4569241333e+02 6.6667041016e+02 -2.0390184021e+02
-1.1863201904e+03 3.7552923584e+02 -1.7657809448e+02
-3.5737902832e+02 2.2636964417e+02 -1.0287320709e+02
8.0682855225e+02 3.8706564331e+02 1.6654214478e+02
7.6527691650e+02 5.0693753052e+02 2.2906422424e+02
-3.3247970581e+02 9.6135162354e+02 -3.6222076416e+02
-4.1408853149e+02 5.7857360840e+02 -1.7696664429e+02
8.0815087891e+02 4.5013452148e+02 2.0545526123e+02
-4.7209582520e+02 7.9547906494e+02 -3.1561450195e+02
-4.6719253540e+02 8.2463970947e+02 -3.3206771851e+02
-3.7538424683e+02 2.2482853699e+02 -1.0217370605e+02
-4.7648379517e+02 5.9400250244e+02 -1.9982147217e+02
-1.6501495361e+03 4.0135867310e+02 -2.5430644226e+02
4.6676663208e+02 1.7421397400e+02 1.1232620239e+02
8.4648724365e+02 4.3744515991e+02 2.0664118958e+02
-7.0772253418e+02 4.1115649414e+02 -1.9993112183e+02
-5.2005212402e+02 9.1025225830e+02 -4.1069180298e+02
-1.4079366455e+03 4.4703930664e+02 -2.7547079468e+02
-3.2595239258e+02 9.2662451172e+02 -3.3872390747e+02
-4.2198355103e+02 6.7259136963e+02 -2.2795553589e+02
-9.4153106689e+01 8.9635357666e+02 -2.4078712463e+02
-1.0105269775e+03 4.2500381470e+02 -1.9573301697e+02
-6.0797149658e+02 6.1954602051e+02 -2.4875706482e+02
-1.0748225098e+03 6.1531164551e+02 -3.7399066162e+02
-2.5425784302e+02 6.5505847168e+02 -1.7528666687e+02
-3.1604162598e+02 8.6714013672e+02 -3.0067559814e+02
3.3018554688e+01 -3.3368251324e+00 5.2830948830e+00
-7.6175140381e+02 5.8349383545e+02 -2.6506820679e+02
7.9507861328e+02 3.9165762329e+02 1.6692408752e+02
-1.1234799805e+03 4.0951800537e+02 -1.9878598022e+02
-1.1137092285e+03 7.7520458984e+02 -5.4478308105e+02
-7.1797131348e+02 6.1122644043e+02 -2.7306298828e+02
-3.1418148804e+02 1.5285047607e+03 -7.5807043457e+02
1.1616859131e+03 3.4705978394e+02 1.8386286926e+02
-1.6384162598e+03 4.0357409668e+02 -2.5570924377e+02
-5.2124041748e+02 6.4201196289e+02 -2.3859002686e+02
3.3369604492e+02 -7.9308178711e+02 -3.3596414185e+02
-4.0532070923e+02 6.9619012451e+02 -2.3595108032e+02
-4.4504489899e+01 -5.1641429901e+01 -4.9653541565e+01
-2.8750372314e+02 7.2807727051e+02 -2.1821949768e+02
-1.6135076904e+03 4.0635366821e+02 -2.5626577759e+02
1.2009146881e+02 -1.0658346558e+02 -1.1337281799e+02
4.2019686890e+02 -2.7143743896e+02 2.1408438110e+02
-1.6661879883e+03 3.9843499756e+02 -2.5245518494e+02
1.2395725098e+03 3.2066824341e+02 2.1182032776e+02
1.0943814697e+03 -1.2244523621e+02 2.4462582397e+02
-1.0272972412e+03 4.5661819458e+02 -2.2405543518e+02
-6.1109716797e+02 1.6150363159e+02 -1.2750847626e+02
-1.3052674561e+03 4.0412484741e+02 -2.1728016663e+02
-1.8137696838e+02 1.0425203857e+03 -3.4547430420e+02
-3.3314010620e+02 1.0247645264e+03 -4.0183312988e+02
-1.3222553711e+03 3.9952859497e+02 -2.1481044006e+02
-2.2365171814e+02 7.6433361816e+02 -2.1747354126e+02
-6.0801049805e+02 6.8379034424e+02 -2.9009292603e+02
1.2932667236e+03 -7.2778680420e+02 4.0231973267e+02
-1.5871614990e+03 4.1183496094e+02 -2.5972039795e+02
-3.6935223389e+02 6.0616760254e+02 -1.8009014893e+02
-4.7199572754e+02 7.5992828369e+02 -2.9373272705e+02
-7.8767681885e+02 3.6885131836e+02 -1.2599758148e+02
1.7847879639e+03 3.0008917236e+02 2.8346618652e+02
-1.1021591797e+03 4.4306546021e+02 -2.2476741028e+02
-3.9638790894e+02 9.5369805908e+02 -3.8517547607e+02
-6.8923675537e+02 7.1746490479e+02 -3.3963720703e+02
-2.7477188110e+02 1.2873043213e+03 -5.4605834961e+02
1.9425184631e+02 -1.6327618408e+03 4.4647256470e+02
-5.2993841553e+02 7.8468634033e+02 -3.2977236938e+02
-1.6550683594e+03 4.7232473755e+02 -3.4269540405e+02
-4.7228021240e+02 2.1572317505e+02 -1.0040736389e+02
4.5325711060e+02 2.0138941956e+02 8.9195907593e+01
-5.0388952637e+02 7.7403997803e+02 -3.1357009888e+02
2.3965526581e+01 -2.2788148499e+02 1.5441316223e+02
-2.0597390747e+02 7.5754156494e+02 -2.0935229492e+02
-1.6851475830e+03 4.6383053589e+02 -3.3653540039e+02
-4.7973602295e+02 8.1390417480e+02 -2.2332609558e+02
-1.0183438110e+03 4.2163488770e+02 -1.9418231201e+02
-7.0459057617e+02 1.5859346008e+02 -1.2976744080e+02
-3.9077587891e+02 1.0044068604e+03 -4.1561221313e+02
-1.5760733643e+03 6.2455145264e+02 -5.2023297119e+02
-1.3378950195e+03 4.2406787109e+02 -2.4146942139e+02
-8.3098645020e+02 5.9704656982e+02 -2.9293078613e+02
-4.4392889404e+02 7.8106475830e+02 -2.9679461670e+02
-3.1485079956e+02 1.0753562012e+03 -4.2537960815e+02
-1.3978358154e+03 4.5036099243e+02 -2.7751663208e+02
-6.3819891357e+02 2.0721705627e+02 -9.7462966919e+01
-4.8769912720e+02 8.3510662842e+02 -3.4663488770e+02
-5.1743731689e+02 7.5317956543e+02 -3.0512152100e+02
-9.2464440918e+02 5.0929959106e+02 -2.4719570923e+02
-2.8870187378e+02 1.4460338135e+03 -6.7263751221e+02
-6.2339959717e+02 8.0300189209e+02 -3.7746850586e+02
-1.5044609375e+03 4.5844549561e+02 -2.3478297424e+02
-4.6333731079e+02 4.5905279541e+02 -1.2847041321e+02
-1.0703094482e+03 4.2379608154e+02 -2.0351573181e+02
-6.5204315186e+02 7.6490881348e+02 -3.6082397461e+02
-1.0677697754e+03 5.5484814453e+02 -2.3284956360e+02
-1.7005798340e+02 1.7480822754e+03 -8.2162548828e+02
-5.0209124756e+02 1.0017747192e+03 -4.6762451172e+02
-2.8398303223e+02 9.7871667480e+02 -3.5203363037e+02
-8.7642718506e+02 5.0532705688e+02 -2.3430671692e+02
-5.8321966553e+02 8.6806988525e+02 -4.0804815674e+02
7.4651330566e+02 3.6353912354e+02 1.4114222717e+02
-1.4761308594e+03 3.9298425293e+02 -2.2568533325e+02
-1.8082072754e+03 3.6932202148e+02 -3.2901519775e+02
-2.0488751221e+02 8.3800628662e+02 -2.4730670166e+02
-5.8612860107e+02 9.7416534424e+02 -4.8856488037e+02
-1.0158923340e+03 9.9481127930e+02 -7.3346875000e+02
-1.1675596924e+03 3.9167523193e+02 -1.8877124023e+02
-5.0951718140e+02 1.2072938232e+03 -6.3128875732e+02
-1.0394335938e+03 6.2511627197e+02 -3.7322146606e+02
6.1430328369e+02 1.0228746948e+03 4.7655599976e+02
-5.4877752686e+02 1.9154095459e+02 -1.1242059326e+02
-1.6107712402e+03 4.0906384277e+02 -2.5918539429e+02
-2.3509783936e+02 8.8976904297e+02 -2.8370312500e+02
-1.2083874512e+03 7.7448962402e+02 -5.8057330322e+02
-2.5499980164e+02 1.0246968994e+03 -3.6661206055e+02
1.0524449158e+02 1.2581649780e+02 1.3278208923e+02
-1.4220756836e+03 4.4254681396e+02 -2.7270385742e+02
-1.0474655762e+03 4.6138516235e+02 -2.3144514465e+02
-4.0503823853e+02 9.0063171387e+02 -3.5523367310e+02
-7.0126562500e+02 8.3703265381e+02 -4.3434027100e+02
-8.1124383545e+02 5.0128030396e+02 -2.1817887878e+02
-3.3508300781e+02 7.7854498291e+02 -2.5865100098e+02
-1.6108682251e+02 8.3364453125e+02 -2.3180371094e+02
-1.6723809814e+03 4.5758593750e+02 -3.2673571777e+02
-1.0957183838e+03 5.9338647461e+02 -3.5905062866e+02
-1.0332391357e+03 5.2314349365e+02 -2.8123687744e+02
-1.1483385010e+03 3.5342718506e+02 -2.0083360291e+02
-1.0966844482e+03 3.8608212280e+02 -1.7542187500e+02
-4.4091949463e+02 5.8532061768e+02 -1.8665386963e+02
-5.3479400635e+02 9.3520648193e+02 -4.3505020142e+02
-1.3570253906e+03 4.3724295044e+02 -2.5766787720e+02
-9.9127874756e+02 8.4186944580e+02 -5.6232751465e+02
-5.4102532959e+02 5.3608929443e+02 -1.8308821106e+02
1.9476140137e+03 3.0118371582e+02 3.1908682251e+02
-1.4465826416e+03 3.9756625366e+02 -2.2734724426e+02
-5.1087164307e+02 8.4339617920e+02 -3.6119479370e+02
-1.0415950928e+03 3.8562393188e+02 -1.6840631104e+02
8.2128643799e+02 3.9566876221e+02 1.5839555359e+02
-6.1964770508e+02 6.6851916504e+02 -2.8361608887e+02
-6.1211047363e+02 1.5242640381e+03 -1.0080625000e+03
-5.5243585205e+02 1.0734296875e+03 -5.4853948975e+02
8.1211456299e+02 5.8486254883e+02 2.9157235718e+02
-1.1194201660e+03 3.6806045532e+02 -1.6285020447e+02
-6.6658227539e+02 1.3840560303e+03 -4.6377545166e+02
-8.9013055420e+02 -2.8133129883e+02 -2.6763363647e+02
-2.2491345215e+02 8.1685943604e+02 -2.4319824219e+02
-5.6663818359e+02 1.0104072266e+03 -5.0673767090e+02
-1.3972828369e+03 3.8175802612e+02 -2.0526193237e+02
-1.2094108887e+03 5.3027282715e+02 -3.2525057983e+02
-8.9773931885e+02 5.9055993652e+02 -3.0529785156e+02
-1.1472650146e+03 3.9621005249e+02 -1.9027563477e+02
-9.7261975098e+02 5.5546997070e+02 -2.9508053589e+02
-1.9293389893e+02 1.2365281982e+03 -4.6588137817e+02
-1.6940992432e+03 3.9361972046e+02 -2.4940620422e+02
-4.1324688721e+02 7.2405908203e+02 -2.5368554688e+02
-3.6972415161e+02 1.4753692627e+03 -7.5677209473e+02
-1.9248567200e+02 8.1496569824e+02 -2.3236601257e+02
-9.7815588379e+02 4.2001113892e+02 -1.8704808044e+02
-1.7644578857e+03 4.4424670410e+02 -3.2233349609e+02
1.5806807861e+03 -7.6776623535e+02 -8.5016473389e+02
-1.1914859619e+03 3.8322439575e+02 -1.8404325867e+02
-1.1446550293e+03 5.6607916260e+02 -2.5083116150e+02
-6.8760687256e+02 1.6020858765e+02 -1.2874722290e+02
-9.3676593018e+02 5.0108761597e+02 -2.4321151733e+02
-7.6095269775e+02 5.1962298584e+02 -2.2046672058e+02
-7.4828985596e+02 4.3262936401e+02 -2.4173690796e+02
-1.3864000244e+03 4.0221575928e+02 -2.2523086548e+02
-1.4362156982e+03 4.3822979736e+02 -2.7004501343e+02
-9.9151660156e+02 7.4758551025e+02 -4.7135458374e+02
-1.1349920654e+03 3.7065625000e+02 -1.6673249817e+02
-2.3446122742e+02 2.4249554443e+02 -1.0730319977e+02
-4.6492565918e+02 1.1275225830e+03 -5.4130413818e+02
-4.6108163452e+02 6.1289025879e+02 -2.0617291260e+02
7.2903485107e+02 4.5737481689e+02 1.9072697449e+02
-1.3955874023e+03 7.9646765137e+02 -6.8018957520e+02
-2.2973373413e+02 9.6125006104e+02 -3.2012243652e+02
-1.3859166260e+03 4.7251263428e+02 -2.9936410522e+02
-3.8377166748e+02 3.5182376099e+02 -1.3260227966e+02
-4.3881811523e+02 9.8222955322e+02 -4.2332794189e+02
1.1142514648e+03 4.2102990723e+02 2.1961117554e+02
3.9784951782e+02 7.6899591064e+02 2.4743136597e+02
-1.3214680176e+03 4.2919232178e+02 -2.4438575745e+02
6.3991247559e+02 1.5542126465e+02 1.0496701813e+02
-7.5605627441e+02 4.1434970093e+02 -2.1629747009e+02
1.0938315430e+03 4.3178918457e+02 2.6275021362e+02
-3.8786843872e+02 7.6286834717e+02 -2.6727905273e+02
-2.5170368958e+02 7.8267138672e+02 -2.3457734680e+02
-5.4028405762e+02 4.8068206787e+02 -1.5293690491e+02
-2.1230290222e+02 7.8916955566e+02 -2.2596939087e+02
-2.9962377930e+02 8.4963464355e+02 -2.8507293701e+02
7.2966711426e+02 5.4366534424e+02 2.4083116150e+02
-1.3369936523e+03 4.4390347290e+02 -2.6159091187e+02
-1.1259063721e+03 5.7092370605e+02 -3.4546298218e+02
7.9482781982e+02 5.2020263672e+02 2.1461262512e+02
-1.9250405884e+02 1.1737791748e+03 -4.2673620605e+02
-9.4480670166e+02 6.9109057617e+02 -4.0366601562e+02
-5.6380212402e+02 7.3338952637e+02 -3.0821966553e+02
-6.4251019287e+02 6.9058416748e+02 -3.0546844482e+02
-5.3149200439e+02 7.2823858643e+02 -2.9413647461e+02
4.8500933838e+02 -1.3367944336e+03 -4.9974954224e+02
-1.2556386719e+03 7.2712744141e+02 -5.4507751465e+02
9.0209503174e+02 5.2462255859e+02 2.4653422546e+02
-1.4159310303e+03 4.0084307861e+02 -2.2729302979e+02
-4.1282556152e+02 7.8597003174e+02 -2.8888632202e+02
-1.1989560547e+03 5.3637646484e+02 -3.2899295044e+02
-1.0526666260e+03 8.4973205566e+02 -5.9714654541e+02
-9.6910894775e+02 4.2793063354e+02 -1.9183988953e+02
-2.9660128784e+02 8.9357946777e+02 -3.0825503540e+02
-1.6805488586e+02 5.4906524658e+02 -1.7488385010e+02
-7.2417102051e+02 7.8437109375e+02 -4.0237506104e+02
7.3426831055e+02 4.4567123413e+02 1.8527436829e+02
-1.9952929688e+02 7.7909643555e+02 -2.1753826904e+02
-3.2131182861e+02 7.6682000732e+02 -2.4803140259e+02
-1.7905722046e+02 7.7234552002e+02 -2.0873251343e+02
4.6580102539e+02 8.4989550781e+02 3.1123132324e+02
-9.9985675049e+02 4.1623004150e+02 -1.8721961975e+02
-6.9358886719e+02 1.8301681519e+02 -1.1545557404e+02
-1.1881356201e+03 3.9572259521e+02 -1.9489880371e+02
-5.3920428467e+02 8.2562390137e+02 -3.6045480347e+02
-6.3832971191e+02 5.6748516846e+02 -2.2386097717e+02
6.9049383545e+02 1.0736230469e+03 5.5152789307e+02
-7.0969567871e+02 1.3468861084e+03 -9.0406524658e+02
-5.0425503540e+02 6.1710437012e+02 -2.1964871216e+02
-1.2514984131e+03 3.9856484985e+02 -2.0529222107e+02
-1.0966136475e+03 7.9499682617e+02 -5.5868920898e+02
1.3116639404e+03 3.1130664062e+02 2.0613952637e+02
9.3306201172e+02 3.0941229248e+02 1.3980171204e+02
1.1300963135e+03 1.2069699707e+03 9.5350335693e+02
-4.7763238525e+02 1.0426031494e+03 -4.8500061035e+02
-4.6292306519e+02 7.1266717529e+02 -2.6266680908e+02
-3.5386605835e+02 7.7725231934e+02 -2.6408004761e+02
-4.4551110840e+02 1.0999675293e+03 -5.0992166138e+02
-6.9740838623e+02 5.9822283936e+02 -2.5868545532e+02
6.8189898682e+02 3.4257037354e+02 1.3056208801e+02
-1.6990876465e+03 3.9669668579e+02 -2.5373777771e+02
-4.9131378174e+02 9.0218359375e+02 -3.9260073853e+02
-3.8448715210e+02 6.0226812363e+00 7.4790290833e+01
-8.3626715088e+02 4.0149356079e+02 -2.1715275574e+02
-1.3123381042e+02 1.1539548340e+03 -3.8619305420e+02
-2.7281478882e+02 1.0340765381e+03 -3.8005545044e+02
-6.6260736084e+02 7.9122460938e+02 -3.8398028564e+02
-9.2459930420e+01 1.2172030029e+03 -4.0434399414e+02
-3.7865771484e+02 1.1056190186e+03 -4.7802523804e+02
1.9846725464e+02 1.2613759041e+01 3.7954311371e+01
-4.8396389771e+02 9.5324475098e+02 -4.2440475464e+02
-6.3603613281e+02 9.4578729248e+02 -4.9076168823e+02
-6.5699792480e+02 9.0937829590e+02 -4.7187283325e+02
-1.0626431885e+03 6.9029595947e+02 -4.4143188477e+02
-4.9673709106e+02 6.4675976562e+02 -2.3453509521e+02
-1.7304409790e+02 1.6625411377e+03 -7.5509942627e+02
-3.7571008301e+02 4.1587579250e-01 6.5783813477e+01
-1.0542596436e+03 7.0548687744e+02 -4.5329257202e+02
-6.6716802979e+02 8.7910833740e+02 -4.5268530273e+02
-2.5274050903e+02 5.3613421631e+02 -1.9521252441e+02
-7.0766101074e+02 5.7122521973e+02 -2.4311685181e+02
-1.0885399170e+03 3.6852630615e+02 -1.5990893555e+02
1.0291723633e+03 6.1075569153e+01 1.5284768677e+02
-1.7994675293e+03 5.6810083008e+02 -4.9781210327e+02
-7.1898504639e+02 8.0987121582e+02 -4.2024905396e+02
-9.8738964844e+02 -1.8751818848e+02 -2.5584994507e+02
-1.0195769653e+03 5.3232946777e+02 -2.8617327881e+02
-1.1500303955e+03 4.8818270874e+02 -2.7334347534e+02
1.0135736084e+03 4.3116787720e+02 2.2106056213e+02
-8.1512658691e+02 8.9927575684e+02 -5.3686029053e+02
-2.3923268127e+02 3.2034702301e+01 3.7641395569e+01
-1.0906997070e+03 4.7133520508e+02 -2.4747816467e+02
-1.0143057861e+03 7.2156488037e+02 -4.5495236206e+02
-6.5542065430e+02 6.2451611328e+02 -2.6495352173e+02
-1.3162973633e+03 3.3676153564e+02 -1.9465055847e+02
-1.3481812744e+03 3.7785275269e+02 -1.9612831116e+02
-1.6824797058e+02 8.5085003662e+02 -2.4208229065e+02
-1.0733546143e+03 5.3692858887e+02 -2.2463313293e+02
1.3319470215e+03 3.2575164795e+02 2.2336906433e+02
-8.0987280273e+02 3.6772552490e+02 -1.2788089752e+02
-5.5281036377e+02 1.2619427490e+02 -1.4080978394e+02
7.5815093994e+02 5.4240039062e+02 2.4841181946e+02
7.8799780273e+02 5.7411694336e+02 2.7701876831e+02
-1.3271104431e+02 8.3579901123e+02 -2.2452473450e+02
-2.5378967285e+02 9.0436169434e+02 -2.9823336792e+02
-8.9558062744e+02 7.4253448486e+02 -4.3183660889e+02
-3.2920385742e+02 1.4373549805e+03 -6.9497515869e+02
-1.8375700684e+03 5.5917089844e+02 -4.9319277954e+02
-3.6130416870e+02 1.0563648682e+03 -4.3577026367e+02
-4.3631149292e+02 6.8439788818e+02 -2.3855357361e+02
-3.9329254150e+01 1.0457519531e+02 -4.6155727386e+01
-5.4179327393e+02 8.5141369629e+02 -3.7907623291e+02
8.3934356689e+01 1.1940173340e+02 1.3330830383e+02
1.2849870605e+03 3.3550518799e+02 2.2325918579e+02
-6.4381262207e+02 6.3830914307e+02 -2.7080340576e+02
-9.2247607422e+02 7.2889996338e+02 -4.2946426392e+02
-5.7760021973e+02 6.5377154541e+02 -2.6171527100e+02
-1.0026931763e+03 4.0965109253e+02 -1.8243685913e+02
-1.5374049072e+03 5.3966870117e+02 -4.0458868408e+02
-4.1186288452e+02 4.7940679932e+02 -1.9452793884e+02
-3.5567181396e+02 1.1762707520e+02 -7.2202880859e+01
-1.1775878906e+03 4.1396194458e+02 -2.1001069641e+02
-1.4663320312e+03 3.8779629517e+02 -2.1897927856e+02
6.2186053467e+02 5.5561956787e+02 2.1635066223e+02
-3.1258392334e+02 8.1161462402e+02 -2.6897149658e+02
-1.6003496094e+03 4.5248510742e+02 -3.0997161865e+02
-1.2712470703e+03 3.7680200195e+02 -1.8695117188e+02
-5.3787493896e+02 6.2695184326e+02 -2.3428671265e+02
-1.1049443359e+03 3.8975430298e+02 -1.7950801086e+02
-1.0333675537e+03 3.9464373779e+02 -1.7460420227e+02
-1.7060121155e+02 1.3647263184e+03 -5.3667596436e+02
-6.2872020721e+01 9.7402911377e+02 -2.6697103882e+02
-3.3700210571e+02 6.5057183838e+02 -1.9370443726e+02
6.3933654785e+02 -4.0104794502e+00 9.6975471497e+01
-7.6636215210e+01 9.9417456055e+02 -2.8106896973e+02
-1.4493496094e+03 4.3437033081e+02 -2.6766799927e+02
-3.6959292603e+02 1.3538260498e+03 -6.5694873047e+02
-8.9847540283e+02 6.0246307373e+02 -3.1507223511e+02
-7.6612525940e+01 -1.5180619812e+02 -4.7305149078e+01
-8.2191455078e+02 1.0808848877e+03 -7.1137908936e+02
-1.9008647156e+02 1.4359681396e+03 -5.9782403564e+02
-4.4771295166e+02 8.4860644531e+02 -3.3968716431e+02
-6.5287182617e+02 8.1163934326e+02 -3.9530786133e+02
-1.5542962646e+02 1.2540981445e+03 -4.5716497803e+02
-1.0221462402e+03 4.2995623779e+02 -2.0145185852e+02
7.8687109375e+02 1.1498796387e+03 6.6388043213e+02
6.9242535400e+02 3.3230502319e+02 1.1483205414e+02
8.9666387939e+02 3.1134359741e+02 1.3524847412e+02
-2.8135592651e+02 7.0767889404e+02 -2.0659358215e+02
-1.2363724365e+03 4.0110131836e+02 -2.0581205750e+02
5.8605865479e+02 1.6664219971e+03 8.6928033447e+02
-1.0383027344e+03 4.9108367920e+02 -2.5486643982e+02
2.7320959473e+02 8.1148211670e+02 2.2337640381e+02
-6.1739739990e+02 6.0533380127e+02 -2.4233090210e+02
-4.8010562134e+02 8.6674255371e+02 -3.6424890137e+02
-2.0054519653e+02 1.0740222168e+03 -3.7143801880e+02
5.6483026123e+02 5.9343969727e+02 2.1908987427e+02
-8.0698126221e+02 5.0714282227e+02 -2.2144410706e+02
-2.4229495239e+02 1.9476246643e+02 -1.2114984894e+02
5.5016204834e+02 5.7387988281e+02 2.0514593506e+02
-3.2631652832e+02 6.3850817871e+02 -1.8520350647e+02
-7.6632865906e+01 -2.0155998230e+02 -1.5213003540e+02
6.1048181152e+02 5.7065130615e+02 2.2093180847e+02
6.6653320312e+02 5.2457635498e+02 2.1220750427e+02
-2.6700500488e+02 9.3863769531e+02 -3.2214593506e+02
-1.3636805725e+02 -2.7882707119e+00 2.5422876358e+01
-9.5022955322e+02 4.0316000366e+02 -2.4673989868e+02
-1.0094494019e+03 7.8436187744e+01 -1.7652262878e+02
-4.9825085449e+02 1.0878986816e+03 -5.2983001709e+02
-7.4004425049e+01 1.1491623535e+03 -3.5875100708e+02
-1.5261096191e+03 4.5519522095e+02 -2.3490293884e+02
-3.7332180023e+01 6.6782202148e+02 -2.3186967468e+02
-1.3870022583e+02 1.1860892334e+03 -4.0809326172e+02
-3.5747293091e+02 -6.2145223618e+00 5.9210994720e+01
